# .PCD v0.7 - Point Cloud Data file format
VERSION 0.7
FIELDS x y z normal_x normal_y normal_z
SIZE 4 4 4 4 4 4
TYPE F F F F F F
COUNT 1 1 1 1 1 1
WIDTH 338
HEIGHT 1
VIEWPOINT 0 0 0 1 0 0 0
POINTS 338
DATA ascii
-0.01292470203 0.4957322889 0.04410478204 0.967376055 0.2130445299 -0.1370970328
-0.007343676267 0.5781162789 0.04057208825 0.9420141438 -0.2466297668 -0.2275590274
0.02787419391 0.6450539124 0.03530769748 -0.5777616919 0.6416180351 0.5044974969
0.1031689899 0.6795252858 0.03426314455 0.03825115182 0.818999116 0.5725183817
0.1741889064 0.6443730847 0.03849293351 0.4727247669 0.435441887 0.7661081241
0.205244436 0.5575630536 0.05051870747 0.9104548681 0.09377311699 0.402838101
0.1978039316 0.4847530449 0.05040319127 0.9272912923 -0.3497864248 0.1333428526
0.2173230811 0.5430063807 0.0431081195 0.9355189234 -0.01820938862 0.3528069758
0.2049671258 0.6622989387 0.02519448341 -0.4123247779 -0.4100275846 -0.8135512629
0.1499854398 0.7124989065 0.01404080275 -0.2411679473 -0.539880228 -0.80645357
0.1097613592 0.7236765753 0.01828632388 -0.1703419198 -0.6877348999 -0.705694224
0.05361174225 0.7152995492 0.01527827552 -0.2712098752 0.7339396063 0.6227181207
0.00393596065 0.6770371758 0.01626014159 -0.5755885929 0.5778915443 0.5785664481
-0.01086852812 0.6550467578 0.0170531928 0.760800736 -0.4658704237 -0.4518262813
-0.02026980897 0.6180107418 0.02367588181 0.8505796639 -0.2965167758 -0.4342718469
-0.02313386894 0.5689640415 0.03017093503 0.9715547264 -0.1563803453 -0.1778386943
0.1994438462 0.5447850565 0.07822860451 0.9438614401 0.02122061436 0.3296593203
0.175820377 0.6240697974 0.07699674823 0.7452666718 0.5038280741 0.4367320227
0.154232442 0.6479969794 0.06942939705 -0.5550598485 -0.7195037301 -0.417400224
0.1348106041 0.6622901448 0.06054153053 0.3614555879 0.8112544036 0.459582583
0.1499777237 0.6242908598 0.1127275437 -0.544123022 -0.6131396296 -0.5727040523
0.1692417699 0.5732724433 0.1241751198 0.7404364159 0.2380330132 0.6285651905
0.1773752848 0.5311855549 0.1191215221 0.8066836036 -0.07936054262 0.5856308291
0.1672543195 0.4964663071 0.1221502147 0.7059105337 -0.2638713801 0.6573143945
0.165592148 0.4721626123 0.1091658184 0.6983086104 -0.4164089357 0.5822101707
0.178186737 0.4590765955 0.0718724266 0.7664777801 -0.5959946727 0.2393787015
0.1668647203 0.4475268527 0.07718380562 0.6568578063 -0.7079411142 0.259532659
0.1523656343 0.446001575 0.09972915132 0.5883932969 -0.6802185105 0.4371454062
0.1462818685 0.6188672778 0.1188956094 0.5141826001 0.5530287876 0.6555725847
0.1503891956 0.5716957571 0.1399073481 0.5186148553 0.1717441903 0.8375813781
0.1465879595 0.5145961547 0.1432235427 -0.5064048096 0.1515657685 -0.8488710071
0.1399641927 0.4621537945 0.1266905881 0.455597643 -0.5543661084 0.6964976709
0.1327354518 0.4447660649 0.1180603858 0.4126854228 -0.6774491781 0.6088951905
0.1222489484 0.4301178163 0.1029844225 0.2628370596 -0.8219526261 0.5052826541
0.1053011703 0.4081400872 0.04858404675 0.3410214432 -0.9168544717 0.2075626483
0.1002265513 0.4068014663 0.02240566098 -0.03784858528 0.9959374707 0.08170703162
0.1305606758 0.4174326973 0.02210197364 -0.4514122588 0.8773829917 -0.1625609379
0.1473658425 0.4277235158 0.02347277908 -0.5374827901 0.8334330475 -0.1284585756
0.1649915506 0.4424610319 0.03072632251 -0.6427687532 0.7554212658 -0.1272283027
0.1750461703 0.4554804922 0.04323860583 0.7655294299 -0.627310273 0.1429913052
0.1807316197 0.465989167 0.05032619966 0.8129408543 -0.5676138229 0.1301603452
0.1416483663 0.4291908377 0.07594828774 0.5007590016 -0.8268348772 0.2560947251
0.1209525907 0.414286769 0.05275171787 0.3936661537 -0.9008962709 0.1827918721
0.07720550126 0.407621481 0.05962069781 0.09549174068 0.9737176885 -0.206773283
0.08939616683 0.4158232023 0.08708550965 0.08098498665 -0.8875976522 0.4534444175
0.09707225988 0.449397282 0.133589059 -0.04597757728 0.6654978254 -0.7449823533
0.09050391934 0.4829802855 0.1520046726 0.101925342 0.3264591834 -0.9396997532
0.08887980983 0.5327946594 0.1606845988 -0.1138189068 -0.01932133434 0.9933136174
0.09134743539 0.5862295002 0.1514797592 -0.08709360998 0.3019657686 0.9493320692
0.09303795283 0.6000677062 0.1472901902 -0.1012987489 0.3559566334 0.9289959304
0.1144476696 0.6524614494 0.1036818135 -0.2183234664 -0.8403742131 -0.4960907639
0.1203862973 0.6663368664 0.06292983497 -0.2534645738 -0.8934378669 -0.3708429423
0.1221343364 0.670308246 0.04528288758 -0.1881337778 -0.8784129781 -0.4393134663
0.08946377368 0.6704480828 0.057067516 0.06210890306 -0.946237446 -0.317454217
0.08081872731 0.6479290747 0.1118496954 0.2543240492 -0.7644518235 -0.5923957187
0.065343982 0.5946833626 0.1435334142 -0.3201325592 0.3390866678 0.8846102963
0.05122369527 0.5056894471 0.1491387159 0.3834690557 0.1948151501 -0.902772696
0.06397225823 0.4624924685 0.1352596603 -0.3539574774 -0.4958912405 0.7929728758
0.06887723484 0.4244577204 0.09121463078 -0.1184332576 -0.8540028618 0.5066089967
0.04296599483 0.4384977951 0.1024351073 -0.4091021779 -0.7460986997 0.5253305039
0.03364730124 0.5009973755 0.1369854304 -0.5201957102 -0.2152895715 0.8264664684
0.03187934807 0.5640886745 0.141790582 -0.5690945008 0.1910509691 0.7997693269
0.04207800743 0.6193948558 0.1244971875 -0.485100811 0.5273654044 0.6975406321
0.03380405608 0.6430062036 0.07910655755 0.6044242629 -0.716077293 -0.3491484225
0.009576842338 0.5802931032 0.1093311792 0.8145840488 -0.3011245399 -0.4957588516
0.007580502752 0.5222989157 0.1142516681 0.8342766452 0.0546760095 -0.5486283015
0.009737992448 0.4835925494 0.1013377461 0.8066599815 0.3038313209 -0.5069380659
0.02416589967 0.4404311944 0.06727674187 -0.5998490275 -0.7129229369 0.3632107244
0.02116050748 0.43916604 0.0359400001 0.6447334195 0.7304290786 -0.2253712024
-0.006768102961 0.4936835513 0.06698758837 0.9693832201 0.2060562168 -0.1335552622
-0.008156919248 0.5533661698 0.06933958617 0.9683142805 -0.1500274167 -0.1996477608
0.006513660036 0.6074087649 0.06624987836 0.8875329325 -0.391383582 -0.243113524
0.01425782253 0.62081348 0.06988301037 0.8396316065 -0.4463824125 -0.3094535623
0.03917371576 0.6455389287 0.05935952933 -0.5851319416 0.7604340555 0.281710238
0.01682644107 0.6117711782 0.06583997645 0.8674942678 -0.4286948002 -0.2523379949
0.006541220011 0.5821169395 0.07307533923 0.9401913258 -0.282841741 -0.1898442004
0.1087050138 0.6733341256 0.05274853139 -0.08813055422 -0.9145566568 -0.3947393152
0.004859875984 0.4609355053 0.03022496163 0.8907014269 0.4024570102 -0.2113748399
0.02056423725 0.4373068379 0.02351220319 0.6618698243 0.7227841794 -0.1987746609
0.03426723519 0.4257954106 0.02265149943 0.5096615421 0.8505424797 -0.1297019767
0.1692673531 0.6374487799 0.05303219987 0.6039680221 0.5340248879 0.5916418236
0.1827113656 0.6151314145 0.05747909555 0.7180499108 0.4583757078 0.5237327908
0.1797316924 0.6103851839 0.07758687769 0.7761503171 0.4351806126 0.4562987176
0.1424236273 0.651484353 0.07820520612 -0.4832891762 -0.8014297899 -0.3523377131
0.1058230516 0.6611154035 0.08173197256 -0.08923876526 -0.9298225269 -0.3570245248
0.07546658194 0.6598733311 0.08070079886 0.2248322867 -0.9100925855 -0.3481119484
0.02926796324 0.6390209862 0.08137205092 0.6237158055 -0.6926477852 -0.3622397544
0.0344962067 0.6533272166 0.04793176236 -0.5441718505 0.6673701369 0.508423148
0.06177287364 0.667434387 0.05261140994 -0.2950310526 0.9267784307 0.2324616494
0.0823040297 0.6722819489 0.05130838505 -0.1632236417 0.93635231 0.3108092572
0.122012824 0.6696320255 0.05535486882 -0.2208427318 -0.8761881354 -0.4283956573
0.170904724 0.6371968697 0.05191241899 0.6039680221 0.5340248879 0.5916418236
0.1823985942 0.6130017471 0.04942956948 0.7180499108 0.4583757078 0.5237327908
0.1975292264 0.5408002266 0.06152520968 0.946438379 0.03206868137 0.3212880241
0.1958748174 0.5041512706 0.05585024812 0.9479440822 -0.2318507537 0.2182824891
0.1910869146 0.5839673747 0.05421690047 0.8164172202 0.287949186 0.5005478886
0.1972951575 0.5445392886 0.05435864059 0.9463411482 -0.003930074779 0.3231454561
0.1826117072 0.6107565557 0.05176088963 0.7429926008 0.42170131 0.51974032
0.1756380289 0.6239966202 0.05151120133 0.6704610807 0.5211274104 0.5281175639
0.1613755336 0.6438765419 0.05063990027 0.5590881226 0.5988576558 0.5734021096
0.1527787996 0.6524539548 0.04786728202 0.4777321583 0.6570652525 0.5831271207
0.1163694162 0.6675662265 0.05256871624 -0.1971206049 -0.9031414779 -0.3814170132
0.1182120004 0.6688801996 0.04339471784 -0.1755253991 -0.8796889931 -0.4419707114
0.09566459048 0.672607969 0.04166418169 0.06432624653 -0.9463226769 -0.3167578336
0.08343298134 0.671164914 0.04290805246 -0.1865023164 0.936015318 0.2984831829
0.05494826648 0.6628057128 0.04109951523 -0.4182184708 0.7717301359 0.4790886223
-0.0005214869264 0.5982225974 0.04451325627 0.9133722906 -0.3424704022 -0.2201478649
0.01180479358 0.6210056031 0.06157274918 0.8470718737 -0.3638222207 -0.3874308099
-0.0101897253 0.5576358156 0.04916047154 0.9780140379 -0.1441060957 -0.1507381005
-0.008916428049 0.5467540081 0.07333304381 0.9732709999 -0.08301820644 -0.2141297228
0.00417710304 0.6025635029 0.07383276685 0.8960539053 -0.3772502584 -0.2340291464
0.0274304293 0.6421107148 0.06060439515 0.6624556447 -0.5836833851 -0.4695383103
0.0336372924 0.6472288783 0.0599214923 -0.5956804225 0.7009815875 0.3921602328
0.07102155359 0.6662129153 0.06076011542 -0.2342558981 0.9254326083 0.2978232054
0.1429737653 0.6575107956 0.0613664964 -0.4805869741 -0.6985059561 -0.5302127776
0.1593283531 0.6450401613 0.06755541113 0.5923744396 0.6225850652 0.5113515033
0.1821329315 0.6082186296 0.08155612319 0.7873375098 0.4274200578 0.4443104093
0.1922607241 0.5791946096 0.08307796688 0.89529172 0.2472948323 0.3705374503
0.1983410918 0.5502918327 0.07925423686 0.934417317 0.07397442768 0.3484136359
0.1976928774 0.5195409277 0.07889675486 0.9395001499 -0.1071228043 0.3253677507
0.1910948092 0.4986865212 0.08776906389 0.8966752951 -0.2510429675 0.3646242498
0.2164567263 0.586148769 0.04005350685 0.8290474286 0.2582485293 0.4959718321
0.1837499671 0.6580516668 0.03312742078 0.4697092603 0.4415323573 0.7644752372
0.2047347374 0.6186375675 0.03485967659 -0.6545526805 -0.3133052848 -0.688041123
0.1628209822 0.6772289185 0.02846999801 0.3170876697 0.5809157261 0.7496614762
0.1819714198 0.65048917 0.03359072646 -0.4564596352 -0.4503053878 -0.7673784328
0.1514756194 0.6884470369 0.02585460058 -0.2834513623 -0.5633953881 -0.7760418557
0.2085954854 0.6622835909 0.02719641366 -0.4123247779 -0.4100275846 -0.8135512629
0.194349339 0.6820603477 0.02118289383 -0.374261483 -0.4871437762 -0.7890622813
0.1228461363 0.6628448984 0.07323072572 -0.2402212127 -0.8944109679 -0.3772569277
0.1204879928 0.6568541965 0.0876682122 -0.2444547125 -0.8869852164 -0.3917896367
0.09222456848 0.6586134836 0.08720569006 -0.02863161744 -0.9271917605 -0.3734911909
0.09065550607 0.6463914787 0.1144385012 0.1254223266 -0.7530578825 -0.6458893602
0.1123691076 0.6425450728 0.1181849119 -0.1152897362 -0.7436582286 -0.6585443917
0.06558329676 0.6365695446 0.1173496003 0.3143932217 -0.6780560751 -0.6643770475
0.05247751704 0.5932756859 0.1392420154 -0.4049485117 0.3426811419 0.8476947198
0.05389040516 0.6193819602 0.126399206 -0.3868500387 0.5476709826 0.741891867
0.0475473765 0.5751040722 0.1431308446 -0.4282986587 0.2634417046 0.8643834376
0.04330146339 0.5307083252 0.1452034123 -0.4943900183 -0.04567868987 0.8680391507
0.07394951163 0.6664273076 0.06065182298 -0.2189944362 0.9252159107 0.3098660282
0.09150697045 0.6689030922 0.06508146876 0.01307214369 -0.93859209 -0.3447811011
0.09081786304 0.6654554715 0.07690418402 0.02193344092 -0.9417072123 -0.3357178138
0.0888642733 0.6596388457 0.08910012552 -0.02863161744 -0.9271917605 -0.3734911909
0.08766643649 0.5369163903 0.1595858537 -0.1228503811 0.04225031245 0.9915254384
0.1030762587 0.5345569624 0.1602744831 0.1378825608 -0.01794376672 0.9902860297
0.1093100396 0.5328638183 0.1601276285 0.1475993352 -0.0258994403 0.9887080738
0.123880962 0.5272934658 0.1577887606 0.2698943317 -0.08134919789 0.9594474231
0.1085146792 0.5497209616 0.1594973896 0.04376087628 0.1328389214 0.9901710997
0.08469945394 0.5514120431 0.1589333152 -0.1231907034 0.1344656764 0.9832309151
0.102046676 0.5490072883 0.1602360458 -0.01779221202 -0.1160518254 -0.9930837885
0.1162084437 0.5453278081 0.1593113338 0.1563870105 0.04099575241 0.9868446946
0.09121245827 0.5727456814 0.1562379189 0.06855003109 -0.2124380821 -0.9747671284
0.1077254794 0.5703570369 0.1573782378 0.07018810897 0.19947533 0.9773859126
0.1261185815 0.5642828988 0.1548917522 0.1296287838 0.1645339758 0.977816419
0.1327552235 0.5715440812 0.1531711543 0.273626369 0.2035466796 0.9400517855
0.1028120025 0.5854188584 0.1531964192 0.03591481378 0.2755835335 0.9606059766
0.08149250462 0.6021414603 0.1451577949 -0.1775371182 0.3805559032 0.9075559356
0.08263287868 0.6198413189 0.1368634539 -0.17474984 0.5303998962 0.8295411042
0.1051726052 0.6183140844 0.1394941787 0.008586998467 0.5330836407 0.8460189687
0.1306086009 0.6131527373 0.1391700637 0.2310177061 0.4422381051 0.8666350315
0.1425847024 0.6129083885 0.1323073771 0.3162278315 0.4557897488 0.8320190283
0.08399747514 0.6433927577 0.1180550813 0.1980995524 -0.715284799 -0.6701673102
0.1020604606 0.6428231962 0.1214014956 -0.02901783238 -0.7172238705 -0.6962383824
0.1190666538 0.6396081404 0.1208883909 -0.1254126006 -0.7273934335 -0.674663229
0.09840786713 0.6047315551 0.146258023 0.008021741865 0.4314698087 0.9020917114
0.08659619153 0.605035686 0.1450865178 -0.1195554517 0.4441412559 0.8879442768
0.08654857986 0.5928049771 0.1497515779 -0.1288899252 0.3191946446 0.9388834678
0.1032123786 0.5913028128 0.1511821974 0.02906081247 0.3043196729 0.9521265703
0.1198349064 0.5881563373 0.1512926437 0.157735183 0.3016612841 0.9402765985
0.1386327276 0.5813299341 0.1473382206 0.2858615027 0.3049091167 0.9084677385
0.1252471122 0.5993012796 0.1470491702 0.199008129 0.3893147447 0.8993496507
0.1167607604 0.6110642735 0.1414182706 0.1417833991 0.4765292551 0.8676504692
0.1054797474 0.6212405267 0.1374649847 0.02807305259 0.5602884974 0.8278216616
0.06166972617 0.5978881508 0.1420504066 -0.3388864658 0.3870401086 0.8575289602
0.07362697254 0.5981346081 0.1448000787 -0.2902041314 0.3560737933 0.8882527882
0.09018725215 0.5979557969 0.1481297528 -0.08635057937 0.3374169114 0.937386476
0.1065482924 0.5832517362 0.153223851 0.03599661269 0.2628906858 0.9641538939
0.127065406 0.5737319932 0.1524731094 0.1431109917 0.2273662902 0.9632361155
0.1428707885 0.5653782249 0.1485997778 0.4271353743 0.1234422131 0.8957217157
0.1319509943 0.5609995543 0.1535501198 0.2764171759 0.1051613295 0.9552667898
0.1056781857 0.555146581 0.1591080172 0.04376087628 0.1328389214 0.9901710997
0.08627006369 0.557943148 0.1582555006 -0.103219289 0.1743353539 0.9792614374
0.06639253802 0.5566182713 0.1542307269 -0.2639907765 0.1454745873 0.9534914862
0.1867491199 0.5292905614 0.1086737599 0.8851643611 -0.05565700439 0.4619376058
0.1828441353 0.5489710674 0.1155812177 0.831229885 0.0598619418 0.5526965046
0.1879346095 0.537832298 0.108723106 0.8858235714 -0.03866009299 0.4624089072
0.1759806764 0.5417740712 0.1243113056 0.7879195441 0.002047034574 0.6157747979
0.1747126349 0.5115694549 0.1205143521 0.7480557108 -0.2035106786 0.6316613469
0.1965794561 0.5197547304 0.0865250741 0.9278357211 -0.124639071 0.351547972
0.2007242296 0.5434632514 0.07840291927 0.9438614401 0.02122061436 0.3296593203
0.1974375125 0.5673155352 0.07984948472 0.9055466513 0.1716852459 0.3879554596
0.1894241262 0.4966060351 0.09068309018 0.8794253115 -0.2941224577 0.3743034883
0.1820916267 0.5022218271 0.106301377 0.8001385132 -0.2364483685 0.5512445271
0.172211771 0.5071954581 0.1207199924 0.7315530378 -0.2143010605 0.6472288686
0.1800694268 0.5137220043 0.1132373214 0.777560899 -0.20236397 0.5953552485
0.1478580126 0.4649382521 0.1237177703 0.5705211639 -0.5223907836 0.633729809
0.148197694 0.4478108811 0.1079404828 0.5359487818 -0.6682409211 0.5159583071
0.1681714971 0.4576704603 0.09314794376 0.6949447771 -0.5862710259 0.4163388536
0.1748896866 0.4522153 0.06981731483 0.7356442409 -0.6373752586 0.2293040134
0.1409432662 0.4575692579 0.1229707134 0.4584449756 -0.6112710681 0.645116955
0.1449664741 0.4386249858 0.09843653756 0.5531322352 -0.728640733 0.4038903472
0.145496939 0.4774927185 0.1321564058 0.4990124824 -0.3621582235 0.7872915366
0.1554141676 0.4855297548 0.1284804036 0.613894206 -0.3174682639 0.7227363318
0.1428214916 0.5069618617 0.1436625252 0.4631072074 -0.2004690191 0.8633330104
0.1520541971 0.5052376885 0.1387426498 0.5837512937 -0.2629562116 0.7681721539
0.1579426325 0.4912695984 0.128783868 0.613894206 -0.3174682639 0.7227363318
0.1595835636 0.4829654243 0.122876308 0.6300992595 -0.3164679433 0.7091001086
0.1606284498 0.4743778022 0.1165244824 0.6633888742 -0.4054263865 0.6289234029
0.1608339981 0.4656429154 0.1097780739 0.6509930269 -0.51022943 0.5620266966
0.1666076198 0.5146965772 0.1279613323 0.7315530378 -0.2143010605 0.6472288686
0.1786062448 0.4794419863 0.09765281931 0.7838696531 -0.3868855932 0.4856623362
0.1882411568 0.4949132246 0.08842799662 0.8794253115 -0.2941224577 0.3743034883
0.1799271965 0.5011754782 0.1061825128 0.7911282894 -0.2381225721 0.5633947731
0.1874052976 0.5159646233 0.0987546041 0.895975658 -0.141695008 0.4208920824
0.1673647754 0.4586933483 0.08928149126 0.7200659625 -0.5818606283 0.3780783237
0.1480462896 0.4639911227 0.1202804615 0.5705211639 -0.5223907836 0.633729809
0.1722820176 0.49173254 0.1129031398 0.7362028931 -0.3005846771 0.6063449119
0.1741951194 0.4489981609 0.05087885024 0.6927041412 -0.7028230046 0.1618666024
0.1741597387 0.4526157206 0.064553536 0.7324005099 -0.643996335 0.2210389414
0.1630297793 0.4381824841 0.05068105072 0.5962956989 -0.785849479 0.1639269224
0.1587184881 0.4347245569 0.04809764357 0.577893107 -0.8002886621 0.159930029
0.1538628744 0.4299898973 0.04219983955 -0.5662418969 0.8098734255 -0.1532160201
0.1506610587 0.4275136175 0.04257226189 -0.5462890861 0.8202596988 -0.1695354271
0.1475349484 0.4252260124 0.03711582143 -0.5374827901 0.8334330475 -0.1284585756
0.1209348029 0.4186043341 0.07147519447 0.3744770852 -0.8977380459 0.2320200717
0.1328860694 0.4240435164 0.07299678354 0.4297014424 -0.8638058912 0.263051426
0.1275484171 0.4163744501 0.04817812287 0.4025557989 -0.8982033035 0.1765776156
0.1430085754 0.4320292216 0.07700660929 0.5151188895 -0.8169252002 0.2593949634
0.143520433 0.4395584977 0.09095458909 0.5521082386 -0.7435408436 0.3772578783
0.126858589 0.4305270775 0.09320560234 0.3524651826 -0.8306717204 0.4309904732
0.1369916314 0.4235662887 0.05981646144 0.4972199618 -0.8469335778 0.1883502702
0.1115245743 0.4115312672 0.04831355849 0.3410214432 -0.9168544717 0.2075626483
0.1198905943 0.4147481499 0.04949895237 0.3936661537 -0.9008962709 0.1827918721
0.1154389598 0.4137147657 0.06105208129 0.323530149 -0.916762458 0.2342537905
0.08847281206 0.4124789894 0.0653347401 0.01534336807 -0.9639979896 0.2654664896
0.1065014815 0.4165786023 0.07346791799 0.2915153263 -0.9089354909 0.2980857056
0.1339692159 0.4202101872 0.04350283166 -0.4796534583 0.8629202081 -0.1590637433
-0.002685284797 0.4690947706 0.04123054134 0.9475567374 0.281703729 -0.1509279245
-0.009287167116 0.5163315309 0.07557785707 0.9747849253 0.02051735923 -0.2222012316
-0.00961690939 0.53029126 0.07854123998 0.9687345674 -0.009480383017 -0.2479182531
-0.0005144874155 0.5318106541 0.0956977863 0.9301393372 -0.002680467331 -0.3671969886
-0.0005011543945 0.5530038226 0.09248297469 0.930489676 -0.1629553436 -0.3280770015
0.01572774777 0.477568592 0.09824857234 0.7611959993 0.4032843805 -0.5078802606
0.004189557813 0.521703376 0.09771298809 0.9211870006 0.005683922739 -0.3890786591
0.002385048104 0.5514896762 0.09054277665 0.930489676 -0.1629553436 -0.3280770015
0.01416600073 0.5737105952 0.1188069814 0.7684628249 -0.2697881045 -0.5802406961
-0.00590127014 0.5080183727 0.062545693 0.9814027752 0.0819411974 -0.1735921453
0.05160910574 0.472443543 0.1325567944 -0.3862905626 -0.4638133924 0.7972808403
0.06787664756 0.4695330857 0.1384893315 -0.2714619748 -0.4451625444 0.853310439
0.08442751447 0.4649926307 0.1404787134 -0.05190443159 -0.519281231 0.8530257517
0.08929155923 0.4569368521 0.135748275 0.008765507075 -0.6213200573 0.7835078508
0.1038815088 0.4519452497 0.1321583747 -0.1265717189 0.6456096521 -0.7531054223
0.1234906958 0.4653139881 0.1390582286 -0.2798987946 0.4455454966 -0.8503798417
0.1095303859 0.4719359119 0.1455223188 -0.1807290637 0.4450265244 -0.8770908722
0.07916897029 0.4679538627 0.1409816835 -0.1116342556 -0.4966774517 0.8607260319
0.05936382096 0.485700344 0.142749058 0.2005366117 0.3194298853 -0.9261477289
0.1366338167 0.4579245857 0.1281509986 -0.3962578594 0.5693469191 -0.7202942417
0.1511186855 0.456243703 0.1198575938 0.5735948519 -0.5719424834 0.5864049297
0.1721649226 0.4766207035 0.11275897 0.7083012936 -0.3874498068 0.5900778971
0.1696958915 0.4643927202 0.1038888271 0.6997517766 -0.5016564013 0.5086141034
0.1746693465 0.497488245 0.1215841159 0.7257331031 -0.2442781146 0.6431482456
0.1759061534 0.48228862 0.1114361068 0.7464494209 -0.3389089682 0.5726726581
0.1754122763 0.464170244 0.09676624963 0.7457252225 -0.4913065657 0.4500130566
0.09197078042 0.5266937247 0.1603175753 0.08232901012 0.0877348648 -0.9927358801
0.07249852663 0.5390544242 0.1575093746 -0.2309406286 0.08808645002 0.9689722408
0.1039840188 0.5372495722 0.1612220112 0.1101860952 0.05493066413 0.9923918815
0.09202638445 0.5097459037 0.1578160353 0.09573294835 0.2053861554 -0.9739875409
0.08993964973 0.522133833 0.1599038334 0.09565605075 0.1104010443 -0.9892732329
0.1058148093 0.5616800098 0.1598859152 0.06081834402 0.1569682438 0.9857292222
0.07958628996 0.5540732825 0.1583214142 -0.1954098313 0.1353542692 0.9713363062
0.09789986327 0.4654221464 0.1420432874 -0.09018801212 0.5028191137 -0.859673811
0.08076721572 0.4615730874 0.1371582468 -0.1404746932 -0.5822056125 0.800814264
0.09012026922 0.4826385826 0.1496615061 0.101925342 0.3264591834 -0.9396997532
0.1073087807 0.4753208077 0.1471007544 -0.1434350231 0.4438581692 -0.8845430005
0.09808532481 0.485660595 0.1525551354 0.004486495948 0.3219470576 -0.946747043
0.04618889299 0.5597148946 0.1448925553 -0.4154425639 0.1973846459 0.887945256
0.03125261009 0.5521470881 0.1310488184 -0.588905797 0.116035482 0.7998285624
0.03570183885 0.5864557007 0.1238251432 0.6352585763 -0.3401655843 -0.6933497793
0.04185862518 0.6099860503 0.1151617767 -0.5661099246 0.5081892472 0.6490479507
0.0389313086 0.5978062137 0.1204976317 0.6013209938 -0.4342941755 -0.6706725218
0.04297492264 0.6169023018 0.1093047476 0.5901245776 -0.5516261553 -0.5894587073
0.06850450294 0.6150937791 0.1336459083 -0.3110675178 0.4995019329 0.8085386932
0.06425075162 0.6074410305 0.1351330178 -0.3209916402 0.4684002535 0.8231437113
0.07218858163 0.461038379 0.1301099355 -0.1775569791 -0.6058809004 0.775488139
0.07915085367 0.4680537173 0.1376122314 -0.1116342556 -0.4966774517 0.8607260319
0.0935177338 0.465846049 0.139731364 -0.09018801212 0.5028191137 -0.859673811
0.11053712 0.461272172 0.1384915425 -0.139525572 0.6115971007 -0.7787692862
0.1016562233 0.4461110292 0.1267519892 -0.1149705148 0.6674794335 -0.7356989783
0.2253958123 0.5612133099 0.04420368764 0.9080323593 0.09488430457 0.4080125038
0.2131313893 0.6018379795 0.04162308809 0.8038234965 0.3583559383 0.4748144985
0.2131414567 0.6018546711 0.04160546958 0.8038234965 0.3583559383 0.4748144985
0.1935884073 0.6424568521 0.037212757 0.4894453639 0.4454905475 0.7496541922
0.1677012265 0.668617042 0.03268802639 0.3241749727 0.5271902431 0.7854814031
0.1485191652 0.68064793 0.03016028138 0.3381269818 0.6212048588 0.7069474292
0.1275926515 0.6849163513 0.02918751407 0.2323496988 0.6437118915 0.7291423854
0.1275264867 0.6849196788 0.02919122684 0.2323496988 0.6437118915 0.7291423854
0.0892819527 0.681273607 0.02817510122 0.02768710205 -0.8212885484 -0.5698408064
0.0499662045 0.6598186668 0.02961645806 -0.4503377599 0.7075982221 0.5445187398
0.02963006197 0.6446186887 0.02794504179 -0.6079331778 0.5885006752 0.5329955034
0.01816035305 0.6251617045 0.02880036562 0.8061254862 -0.4143299378 -0.4224836128
0.01205115113 0.6085729781 0.03138008777 0.828286847 -0.3670461358 -0.4233415091
0.005754096208 0.5860465603 0.03188710296 0.9359146891 -0.2470279935 -0.2510794
-0.001722170227 0.5734068219 0.03218563422 0.9420141438 -0.2466297668 -0.2275590274
-0.004665905592 0.5519256729 0.03395825392 0.9782008765 -0.1693154819 -0.120230249
-0.007743281449 0.539530175 0.03751881491 0.9800879352 -0.1020188055 -0.1703519962
-0.01061888639 0.5278641286 0.04370972296 0.9883214086 -0.05399253282 -0.1424977183
-0.003696027385 0.5699647136 0.05446930927 0.9556541536 -0.2482567608 -0.1584099728
-0.00693955936 0.5472035088 0.05463715454 0.9800879352 -0.1020188055 -0.1703519962
-0.006682839908 0.5042534163 0.04146325536 0.9821621829 0.1389766289 -0.1266607404
-0.008573147154 0.5470576915 0.03917277914 0.9827076133 -0.1197224307 -0.1412525621
-0.009653330842 0.5786616854 0.03476301993 0.9420141438 -0.2466297668 -0.2275590274
0.008830377445 0.6386297508 0.02823426053 0.760800736 -0.4658704237 -0.4518262813
0.004227757735 0.6048120835 0.03305974882 0.8576938717 -0.3339588918 -0.3909382062
-0.006410315758 0.5391058522 0.05773345608 0.9766879974 -0.09662445169 -0.1916879526
-0.01067025907 0.5376376399 0.04478654697 0.9800879352 -0.1020188055 -0.1703519962
-0.008499908352 0.5637442955 0.0474251473 0.9561728481 -0.2421414856 -0.1646237692
-0.001575604049 0.5885416959 0.04520664256 0.9392691599 -0.2562001294 -0.2283307665
0.00803135603 0.6120301907 0.04327794491 0.8558335245 -0.3619706435 -0.3694945624
0.01578602146 0.6256169406 0.04578597006 0.8232862066 -0.4721372495 -0.3150971907
0.2036071471 0.5079879756 0.05803348367 0.9465858241 -0.1906244737 0.2600722737
0.2052111341 0.5246171963 0.05503486795 0.9508663825 -0.05144906232 0.305296768
0.2040032952 0.5397230863 0.0639116189 0.946438379 0.03206868137 0.3212880241
0.1980194171 0.5789058446 0.05689810084 0.8461454274 0.2271497403 0.4821212619
0.2017089881 0.5652679306 0.05255974952 0.8359421577 0.2242425876 0.5009151334
0.1884600851 0.6072549266 0.06028209998 0.7767403227 0.4165130599 0.4724313093
0.1969595269 0.5728870158 0.06870399415 0.8504978985 0.2329953798 0.471557502
0.1980316812 0.5522508501 0.07600272925 0.9468940525 0.04122575383 0.3188919732
0.1985340323 0.5351715922 0.07623568064 0.9487768151 -0.02956546614 0.3145607069
0.1989347668 0.4891409183 0.05027103157 0.9231089448 -0.3174655185 0.2169919827
0.2037667758 0.5098573722 0.04911630158 0.9464254853 -0.233549555 0.2230098789
0.2049373981 0.5368911014 0.0469211499 0.9458248823 -0.02271232737 0.3238818338
0.2039237617 0.5590693492 0.04495172446 0.8917125429 0.1291509219 0.4337842553
0.2013241981 0.5786108297 0.04297672887 0.8286320333 0.258033484 0.4967772887
0.1924012065 0.6047937117 0.04124189571 0.7905423109 0.4002327672 0.4635262525
0.1827263398 0.6209838662 0.0411160956 0.7037970682 0.5079035111 0.4966927725
0.1639896467 0.6456708877 0.03587271345 0.4810369354 0.5212212764 0.7049339315
0.1543725837 0.6537874756 0.03435088853 -0.411991751 -0.6046330447 -0.6816756402
0.1543704423 0.6537754552 0.03431996858 -0.411991751 -0.6046330447 -0.6816756402
