# .PCD v0.7 - Point Cloud Data file format
VERSION 0.7
FIELDS x y z normal_x normal_y normal_z
SIZE 4 4 4 4 4 4
TYPE F F F F F F
COUNT 1 1 1 1 1 1
WIDTH 110
HEIGHT 1
VIEWPOINT 0 0 0 1 0 0 0
POINTS 110
DATA ascii
-0.1716059931 0.3730243852 0.05840398978 -0.08322066374 0.09272376769 -0.992207954
-0.1682156179 0.4028060602 0.0598531489 -0.09021454951 0.08789286462 -0.9920363801
-0.1677810371 0.4063656546 0.06149078492 -0.09021454951 0.08789286462 -0.9920363801
-0.162457857 0.4085660719 0.06109691392 -0.08173284903 0.09408245113 -0.9922037259
-0.1589954515 0.4078661559 0.0599183945 -0.08173284903 0.09408245113 -0.9922037259
-0.1568468652 0.4176855278 0.05994426033 -0.08173284903 0.09408245113 -0.9922037259
-0.1434935577 0.4143691682 0.05929632754 -0.09183870038 0.09938675102 -0.9908016587
-0.1326780918 0.4146167985 0.05844301938 -0.09183870038 0.09938675102 -0.9908016587
-0.1195366396 0.4137362311 0.05591852133 -0.09077962508 0.1124439462 -0.9895026117
-0.1072588238 0.4122441454 0.05340529684 -0.09077962508 0.1124439462 -0.9895026117
-0.09858191994 0.4124405335 0.05251225739 -0.09031439697 0.113827299 -0.9893870101
-0.0863941769 0.4129733488 0.0512724333 -0.09433648953 0.1177854838 -0.9885480295
-0.07180576116 0.4133596238 0.05033130658 -0.08439865865 0.1201173109 -0.9891656575
-0.05573339974 0.4160558066 0.05031291868 -0.07580935678 0.1125095987 -0.9907545264
-0.03295372276 0.4238812955 0.05337759501 -0.01044459065 0.1506577363 -0.9885308073
-0.02330014121 0.4326738277 0.05047671937 0.008576867473 0.1326927665 -0.9911201073
-0.0123103765 0.4415514159 0.05220212237 0.01054577702 0.1324065645 -0.9911393889
-0.008955557639 0.4531174661 0.0508911517 -0.006358333647 -0.1379948142 0.9904125417
-0.001571447827 0.4645147508 0.05357489202 0.002554999252 0.1298744936 -0.9915271494
0.01583909832 0.4612497128 0.06039255067 -0.03737787208 -0.135910293 0.9900158014
0.02439621263 0.4592497864 0.05931625218 -0.02279325293 -0.1309801973 0.9911229265
0.03684176833 0.4548683458 0.05564938468 -0.02279325293 -0.1309801973 0.9911229265
0.04130301919 0.4533308979 0.05226390141 -0.04443940039 -0.1128685668 0.9926156488
0.04459247362 0.4441995616 0.05198929582 -0.03813061618 -0.1260243809 0.9912940591
0.05306002947 0.4406077006 0.05035788913 -0.05433464948 -0.1138606456 0.9920098282
0.06186815065 0.4368026703 0.05511084114 -0.03324369813 -0.08532582807 0.9957983529
0.08629816236 0.4436884058 0.05221633167 -0.005496087983 0.0285013624 -0.9995786439
0.1101074944 0.448508817 0.05134552958 -0.03690210212 -0.02000255554 0.999118678
0.1317931785 0.4552712926 0.04908660151 -0.04257092307 0.03383924489 0.9985202161
0.1456723781 0.4568544084 0.05092896434 0.02483673384 -0.04809391843 -0.9985339812
0.1656483648 0.4597761359 0.0511038528 0.024504946 -0.07067970738 -0.9971980177
0.1818533322 0.462754853 0.05188272058 0.02646809974 -0.07239771442 -0.9970245788
0.2020046341 0.4676802893 0.05043942534 -0.0170483856 0.06260032375 0.9978930564
0.2207786758 0.4691493847 0.05153863347 -0.02096341771 0.1186038978 0.9927203285
0.2359867423 0.4746902511 0.04998997813 -0.005856157267 0.1147812384 0.9933735313
0.2429507915 0.4740758637 0.05201532228 -0.01427538717 0.1104124717 0.9937833262
0.2430900144 0.4599451855 0.05863179429 0.01227414514 0.007361673174 0.9998975703
0.243251833 0.4436260172 0.06127495547 0.01245488353 -0.01589390771 0.999796109
0.2418057513 0.425940087 0.06184025921 0.02479018086 -0.02923862279 0.9992650048
0.2419890055 0.4112857073 0.06203304102 0.031371195 -0.04071832654 0.9986780592
0.2412135907 0.3955455063 0.06141196297 0.031371195 -0.04071832654 0.9986780592
0.2398473459 0.3802135761 0.05909298846 0.02980299841 -0.07401665368 0.9968115751
0.2402377661 0.3710743959 0.05651022567 0.009200392174 -0.163399099 0.98651715
0.2402454388 0.3610276629 0.04973281646 0.01048075975 -0.1651661583 0.9862100658
0.2387252309 0.359292901 0.0468650607 -0.0002849323224 -0.1986031842 0.9800799427
0.2079538302 0.3595693677 0.04956609078 0.0212560678 0.2250297046 -0.9741200191
0.1811286728 0.3621379257 0.04737480423 0.03321239455 0.2664343072 -0.9632806947
0.1553132991 0.3634047186 0.04616942627 0.02258193613 0.2621444847 -0.9647643885
0.1282939381 0.3664228257 0.04437509607 0.04620338151 0.2061075063 -0.9774379486
0.09876821878 0.3670422405 0.04390481285 0.06144199058 0.2198883365 -0.9735882093
0.06658388819 0.3701896466 0.04352279569 0.06550904013 0.1862313627 -0.9803195628
0.0430597403 0.3711155885 0.04274072479 0.06297986129 0.1733356531 -0.9828470321
0.02732556796 0.3726684867 0.04260494931 0.06405884119 0.1670150261 -0.9838711531
0.0173915401 0.3779879645 0.04353384058 -0.01705671572 -0.1498135931 0.9885671225
0.02177276174 0.3749846105 0.04247582458 -0.04288830317 -0.1566877369 0.9867165482
0.01703389378 0.3808733323 0.04368407165 -0.01994774711 -0.1518227862 0.9882064202
0.0105875411 0.3865060927 0.04317073234 -0.01994774711 -0.1518227862 0.9882064202
0.0009625684189 0.390121006 0.04329713458 0.001608857123 -0.1641694939 0.9864308333
-0.01406515491 0.3894194443 0.04302304314 -0.008744959973 0.1450147288 -0.98939085
-0.03663926115 0.3863013377 0.04453535215 -0.02799406786 0.1310421781 -0.9909814729
-0.05531851629 0.3828312983 0.04512172984 -0.07125181258 0.1251179492 -0.9895800513
-0.06867844187 0.3807756651 0.04873655844 -0.07934676714 0.1263323235 -0.9888095037
-0.09113575353 0.3798750661 0.05073930177 -0.09352010742 0.1146820608 -0.9889904016
-0.1080734718 0.3779367998 0.05225146614 -0.09077962508 0.1124439462 -0.9895026117
-0.1244599807 0.3755526953 0.05316037702 -0.09578331358 0.1029546784 -0.9900635793
-0.139641666 0.3746365867 0.0559697299 -0.09183870038 0.09938675102 -0.9908016587
-0.1512560421 0.3755782882 0.05565905402 -0.08958942799 0.1024440458 -0.9906961955
-0.1576377949 0.37511963 0.0562665581 -0.08173284903 0.09408245113 -0.9922037259
-0.1604482563 0.3744274253 0.05414285625 -0.08173284903 0.09408245113 -0.9922037259
-0.1283528265 0.3990573957 0.06024659807 -0.09077962508 0.1124439462 -0.9895026117
-0.1080789865 0.4065797586 0.06067600596 -0.09077962508 0.1124439462 -0.9895026117
-0.1072099514 0.39758175 0.05880832529 -0.09077962508 0.1124439462 -0.9895026117
-0.06781022195 0.4049759276 0.05668011686 -0.07772787951 0.1131892871 -0.9905284257
-0.002524073435 0.4195317586 0.057990033 -0.02952850705 -0.1417547501 0.9894612969
0.02327876418 0.4496509579 0.06233671597 -0.04121087694 -0.14096725 0.9891561545
0.1183443661 0.4269210001 0.06125173359 -0.06104506939 -0.04883827266 0.9969394779
0.09446907115 0.4125667976 0.05925796092 0.05268926136 0.08651312924 -0.994856432
0.1035055516 0.3996699784 0.05755197037 0.04859116199 0.1083769045 -0.992921621
0.1665640817 0.4342267934 0.06249920239 -0.006712255398 0.004306171437 0.9999682008
0.1948702772 0.4381591705 0.06266866743 -0.008287133811 0.02828896842 0.9995654344
0.1844800974 0.4018161072 0.06063614307 -0.02580507161 -0.1063786833 0.9939907817
0.1543215578 0.3940287541 0.05885075741 -0.03501165871 -0.1686964269 0.9850460392
0.2119921754 0.3807174986 0.05702938109 -0.000304666967 -0.1711427753 0.9852461914
0.1780134361 0.3756479093 0.05413382941 0.02650826048 0.2382973331 -0.9708304142
0.1625398343 0.3740827425 0.05211754625 0.01928369482 0.268950352 -0.9629609791
0.1269490843 0.370717324 0.04553998866 -0.06511773029 -0.1784727587 0.9817877345
0.2249577602 0.3680719606 0.04849352726 -0.000304666967 -0.1711427753 0.9852461914
0.1117179691 0.3669858374 0.04568684018 0.05316770179 0.1784305288 -0.9825150085
0.1213582827 0.3787729562 0.05470145914 -0.07190033741 -0.1291092641 0.9890202927
0.1388439239 0.3786996554 0.05473785059 0.04035838819 0.2622482713 -0.9641561309
0.1478443891 0.3807688239 0.05549307409 0.03110034759 0.2529865921 -0.9669697785
0.1701976189 0.3814980667 0.05636620775 0.01376480841 0.2358540838 -0.9716909906
0.1575069564 0.4155159888 0.0623282706 -0.03017114642 -0.05146241191 0.9982190752
0.1801209622 0.4212213094 0.06284995855 -0.02338467354 -0.00905928684 0.9996854937
0.2057025724 0.4182547785 0.06306871003 0.01067237831 -0.02381752425 0.9996593549
0.0997146564 0.3851020261 0.05602801975 0.05496174651 0.1481172259 -0.9874413875
0.0373527196 0.3981408026 0.05536946513 -0.06918573792 -0.1463817964 0.9868058083
0.01391683599 0.3885694134 0.04606437296 -0.0222023156 -0.1560218309 0.9875040483
0.03386848359 0.4084521471 0.05765808731 -0.04547243485 -0.1442649059 0.9884937504
0.0327128829 0.3953072224 0.0533324628 -0.07212693495 -0.1552952708 0.9852314876
0.02554997401 0.4109448574 0.05603388544 -0.03042968081 -0.1498665786 0.9882378475
0.01738936523 0.3951673874 0.04798190968 -0.03042968081 -0.1498665786 0.9882378475
-0.08077943498 0.3866459113 0.05322476183 -0.09360913528 0.1173744621 -0.9886660535
0.1146378097 0.4132250777 0.06049985088 -0.07444655776 -0.08922740675 0.9932251406
0.1021071177 0.3943813046 0.05673887412 0.05327292582 0.1054477768 -0.9929968589
0.1268094732 0.3948327089 0.0581587504 -0.05517755686 -0.09474055728 0.9939716616
0.135370026 0.4058083128 0.06017652451 -0.05378927045 -0.06124992398 0.9966720429
0.2127185877 0.3687013947 0.04992119157 0.0178136157 0.2058637827 -0.9784185087
0.2263004878 0.36926402 0.0488096935 -0.000304666967 -0.1711427753 0.9852461914
0.118708038 0.3759428414 0.04884258363 -0.07594420783 -0.1737584039 0.9818556383
