# .PCD v0.7 - Point Cloud Data file format
VERSION 0.7
FIELDS x y z normal_x normal_y normal_z
SIZE 4 4 4 4 4 4
TYPE F F F F F F
COUNT 1 1 1 1 1 1
WIDTH 178
HEIGHT 1
VIEWPOINT 0 0 0 1 0 0 0
POINTS 178
DATA ascii
0.3701147673 0.4730282612 0.05764689451 -0.046652359 -0.1193751602 -0.9917525541
0.3702810271 0.4750043647 0.05776484199 -0.046652359 -0.1193751602 -0.9917525541
0.3344976667 0.4744653709 0.05841250005 -0.03503218007 -0.1045314397 -0.993904384
0.2449851905 0.4717874904 0.06127803245 -0.04033171756 -0.128386998 -0.9909036943
0.1671415513 0.4698698427 0.06790015334 -0.02798536321 -0.1705953699 -0.9849436731
0.113571042 0.4695745135 0.06802386116 -0.02653631656 -0.1821666304 -0.9829095292
0.07981169936 0.4689450598 0.06787163139 -0.0261956387 -0.1708032891 -0.9849568645
0.07461322345 0.4768951092 0.06861680762 -0.02397763275 -0.1696833619 -0.985206897
0.03244939102 0.4755774949 0.06844928846 -0.01646883927 -0.16094071 -0.9868266642
-0.008489078234 0.4745094419 0.06959270155 0.02015297721 -0.1456323683 -0.9891334949
0.3767480879 0.475286271 0.05907533851 -0.046652359 -0.1193751602 -0.9917525541
0.3833610644 0.4919392092 0.05421356177 -0.046652359 -0.1193751602 -0.9917525541
0.3760398087 0.5024985483 0.05277275757 -0.046652359 -0.1193751602 -0.9917525541
0.3218459649 0.5048436048 0.05462858274 -0.03808078731 -0.09878949729 -0.9943794491
0.2419618472 0.5044362841 0.05880324021 -0.04033171756 -0.128386998 -0.9909036943
0.2419377385 0.5044344542 0.05878802152 -0.04033171756 -0.128386998 -0.9909036943
0.1657431292 0.5088048734 0.05634389369 -0.02798536321 -0.1705953699 -0.9849436731
0.1059242839 0.5130420726 0.05606811381 -0.03482822421 -0.1929452829 -0.9805912057
0.08178116193 0.5152505781 0.05988438322 -0.03237501022 -0.18625617 -0.9819676664
0.02890038112 0.5177739572 0.06062072957 -0.02315873917 -0.1839202084 -0.9826683213
-0.01738079413 0.5189974121 0.06052777986 0.03336775353 -0.1496694389 -0.9881728857
-0.06340640452 0.5154722635 0.06089022697 0.06922432465 -0.1521220075 -0.9859345251
-0.108785997 0.5199337912 0.05599159548 0.1227197909 -0.06517505608 -0.9902989776
-0.1408451312 0.5361410539 0.05163641983 0.03407510571 -0.06905595073 -0.997030673
-0.1568141522 0.5625015542 0.04590934743 -0.02088005972 -0.09664556454 -0.9950998231
-0.1600487989 0.5694504561 0.04402855921 -0.02088005972 -0.09664556454 -0.9950998231
-0.1846547546 0.5631575228 0.05209744305 -0.06855111144 -0.1580228482 -0.9850530567
-0.1953554567 0.5559964651 0.04881674617 -0.06855111144 -0.1580228482 -0.9850530567
-0.1999856165 0.5447871402 0.04817678364 0.08706963431 0.1112576518 0.9899700065
-0.2072845765 0.5410955133 0.05097762477 -0.08981516351 -0.08624082777 -0.9922175951
-0.2317906641 0.5468502191 0.05060255135 -0.1212024581 -0.1693680075 -0.9780717981
-0.2701199588 0.5576199177 0.04714102297 -0.1413597615 -0.2906828223 -0.9463196683
-0.3045907094 0.56760482 0.04454100954 -0.04984190166 -0.4148936588 -0.9085037351
-0.3575200582 0.5820990169 0.04257288251 0.04084541636 -0.3580770418 -0.9327982012
-0.3974811416 0.5923699392 0.04478750209 -0.04267098053 0.3274855016 0.9438921727
-0.4230905557 0.5944307787 0.03716580225 -0.03387694925 0.3205727548 0.9466179067
-0.4184736154 0.5562507994 0.0545045429 -0.1473996676 0.1469092056 0.9781058344
-0.4184686936 0.5562459604 0.05447152135 -0.1473996676 0.1469092056 0.9781058344
-0.4185058665 0.518351325 0.05889639332 -0.1801612448 0.09163829131 0.9793591524
-0.4201723313 0.4802622629 0.06130885406 -0.1544333305 -0.05176112646 0.9866464069
-0.4213437005 0.4721502021 0.05446783547 -0.1641437858 -0.06310622571 0.9844157769
-0.3956804014 0.473625332 0.05156964936 0.1247958368 0.08515374963 -0.9885215415
-0.3642608406 0.4739845691 0.05189359737 0.06559748776 0.2211169204 -0.9730386822
-0.3312782989 0.4725729579 0.05214553299 0.03756513987 0.2857347548 -0.9575721958
-0.3032295505 0.47363283 0.04976996678 -0.02427813783 0.3288894732 -0.9440562941
-0.2636471693 0.4778231868 0.05646746696 -0.07158333695 0.1554651452 -0.9852443425
-0.235397629 0.4806447193 0.05663369018 -0.129437095 0.02182200455 -0.9913474863
-0.2133376441 0.4801572946 0.05316405445 0.15538978 0.06172131353 0.9859231693
-0.1981524736 0.479546411 0.04954033495 0.1258395085 0.06979677367 0.9895922537
-0.1842663874 0.480158386 0.04872110959 -0.06302698983 -0.05856272374 -0.9962921288
-0.1737824364 0.4865727486 0.04798834972 0.02943422439 0.05962606421 0.9977867302
-0.1593179982 0.4913101694 0.04700710351 0.04069063925 -0.05677913987 -0.997557217
-0.1260739929 0.4848100065 0.05282517012 0.08329629318 -0.08628773804 -0.9927820273
-0.1119829683 0.4808559454 0.05384943515 0.1157161816 -0.08760088877 -0.9894118706
-0.09415161405 0.4755962091 0.05915661499 0.1213482417 -0.09290246004 -0.9882528711
-0.08181834338 0.4744289083 0.06270961031 0.1059044803 -0.1021225432 -0.9891184091
-0.05005717645 0.4741779161 0.06779851043 0.06146251794 -0.1418447494 -0.9879789603
0.3560153852 0.4743304517 0.05733978667 -0.04396349254 -0.1108357249 -0.9928658789
0.3559732778 0.474370752 0.05733846965 -0.04396349254 -0.1108357249 -0.9928658789
0.3495791993 0.5030852387 0.05585651219 -0.04396349254 -0.1108357249 -0.9928658789
0.3589372382 0.5054706725 0.05150468029 -0.04396349254 -0.1108357249 -0.9928658789
0.3555425614 0.4945753472 0.06018687923 -0.04396349254 -0.1108357249 -0.9928658789
-0.1021699426 0.5038882568 0.06545458401 0.1173369889 -0.0998178158 -0.988062971
-0.002420773663 0.5145381654 0.06333489124 0.008619079774 -0.173461273 -0.9848029743
0.07318866213 0.4771810947 0.06832135665 -0.02397763275 -0.1696833619 -0.985206897
0.0737945933 0.4757038493 0.06808502081 -0.02397763275 -0.1696833619 -0.985206897
0.07550656524 0.4717192811 0.06712538021 -0.02397763275 -0.1696833619 -0.985206897
-0.08430606698 0.4723206552 0.06259436061 0.1059044803 -0.1021225432 -0.9891184091
-0.1183890677 0.4867206321 0.05847025699 0.09891466826 -0.09654105703 -0.9904017936
-0.1581609317 0.4945179164 0.05040645882 0.03626150669 -0.06468572743 -0.9972466394
-0.1834546009 0.4820910244 0.04929553562 0.04482152963 0.05355639115 0.997558391
-0.2121977374 0.5443545436 0.04817655669 -0.05975628131 -0.1595268626 -0.9853833604
-0.20648671 0.5438747818 0.04651576959 -0.0495813221 -0.1198636754 -0.9915515074
-0.199932987 0.5469403414 0.04721430358 0.08706963431 0.1112576518 0.9899700065
-0.1941733753 0.5512973587 0.05036574664 0.08838878704 0.1183893366 0.9890254735
-0.1951580786 0.5562476646 0.04882133399 -0.06855111144 -0.1580228482 -0.9850530567
-0.1936403654 0.5584908609 0.04797474198 -0.06855111144 -0.1580228482 -0.9850530567
-0.1825167178 0.5628201102 0.0519707982 0.08130260015 0.1268269911 0.9885872756
-0.1649604283 0.5690285849 0.05142919347 0.04397102768 0.1037055035 0.9936356059
-0.1595688513 0.5678986192 0.04864877826 -0.02088005972 -0.09664556454 -0.9950998231
-0.1563046993 0.5679746862 0.04216446077 -0.02088005972 -0.09664556454 -0.9950998231
-0.1489163997 0.5496821709 0.04652612912 0.03083360478 -0.08158072567 -0.9961896777
-0.1442353231 0.5412694766 0.04993368262 0.03083360478 -0.08158072567 -0.9961896777
-0.1286961433 0.5280193878 0.05142343441 0.09128618198 -0.05418203221 -0.9943496067
-0.09580768352 0.5186933479 0.05639718744 0.111737751 -0.08764962437 -0.9898647475
-0.1837538059 0.5164895996 0.06048043677 0.1124683859 0.04188425623 0.9927721648
-0.1806680882 0.4833202947 0.05196495354 0.04858400292 0.05464162396 0.9973233616
-0.1970982844 0.4889577483 0.05815659306 0.09416921225 0.05894033187 0.99380994
-0.2068429142 0.4963350232 0.06092119827 0.1487769943 0.06247651237 0.9868951775
-0.207986242 0.5078636696 0.06158110416 0.1503036933 0.05774759502 0.9869518808
-0.2041741941 0.5185235254 0.06076271202 0.1503036933 0.05774759502 0.9869518808
-0.235623073 0.5248654008 0.0656123554 -0.1498221428 -0.1179892145 -0.9816475288
-0.2778646066 0.5377691384 0.0699516439 -0.1135853066 -0.230610329 -0.9663939436
-0.323051273 0.5373287266 0.07246234998 -0.03648758823 0.2631185087 0.9640732889
-0.3146131947 0.538402148 0.07153687074 0.01870926866 0.2396402671 0.9706814646
-0.2923309907 0.5408218391 0.06950805848 0.1153721002 0.2534711945 0.96043825
-0.3340246809 0.5305754264 0.07240808913 0.08053339303 -0.1323896179 -0.9879207264
-0.3425823682 0.5237298655 0.07350081807 -0.1143697332 0.05909162779 0.9916792544
-0.3455893999 0.5094112484 0.07208953483 0.09109979475 0.1245901993 -0.9880172618
-0.347496702 0.4990660392 0.0706510896 -0.0426769953 -0.1854382987 0.9817287362
-0.3484026509 0.4929238892 0.06659707101 -0.06604338704 -0.2003238528 0.9775012148
-0.3519021865 0.4825746847 0.06165598824 -0.07064392891 -0.2339026536 0.9696901484
-0.3720930135 0.4863365757 0.06343010679 0.06388889501 0.2160339031 -0.9742933654
-0.3724906368 0.5124701203 0.06543964539 -0.1478987927 -0.02979984683 0.9885534463
-0.3659377895 0.5403938527 0.06228288089 0.1386194425 -0.2246189816 -0.9645366573
-0.3430742593 0.5597956005 0.05600086383 -0.09573684366 0.3297085667 0.9392160123
-0.3838126639 0.5623977302 0.05750175873 0.09807518444 -0.2848408844 -0.9535444032
-0.3500985686 0.5741610098 0.04900572636 0.04671820583 -0.3497578154 -0.9356745587
-0.4119499149 0.5560878661 0.05858686067 -0.1585063916 0.1683409816 0.9729013505
-0.3511588102 0.492683865 0.06482121494 -0.06037972274 -0.1961161365 0.9787199549
-0.3539598687 0.5057084748 0.06553136416 0.1611495098 0.06348199187 -0.984886223
-0.3517077726 0.5195409033 0.06553651694 0.1152232986 0.03520685884 -0.9927155023
-0.337921467 0.5357706752 0.06353111646 -0.1280710183 0.1983613016 0.9717255828
-0.3232761048 0.5436684196 0.06341018959 -0.06331512235 0.3228557132 0.9443280064
-0.3089533231 0.5457858994 0.05972670542 0.02239694274 0.341879434 0.9394768915
-0.297484571 0.5448720964 0.0597202377 0.09195286114 0.2850218339 0.9541002178
-0.2731700199 0.5400666228 0.06080796963 -0.1571997604 -0.2047090713 -0.9661171934
-0.254127906 0.5385511055 0.05818670105 -0.1267357836 -0.1852032307 -0.9744936144
-0.2292104139 0.5336666103 0.05772423247 0.1401259167 0.1090976641 0.9841048863
0.03174853813 0.5006378088 0.06656804907 -0.02315873917 -0.1839202084 -0.9826683213
0.04009804548 0.4866176418 0.06855879511 -0.02654569549 -0.1854240765 -0.9822999735
0.09582916966 0.5005998096 0.06574175237 -0.03276277762 -0.1908954214 -0.9810634732
0.1311862756 0.4999577756 0.06486110799 -0.02515815328 -0.1787015706 -0.9835816265
0.1306090728 0.4866040024 0.06749680276 -0.02718422858 -0.1846569133 -0.9824270162
0.1836456958 0.4785900662 0.06641145376 -0.03192351983 -0.1644886372 -0.9858622506
0.1924050105 0.4904443273 0.06586283853 -0.0331423865 -0.1670254499 -0.9853953934
0.2286683454 0.4990560127 0.06205884527 -0.04259543459 -0.1238587254 -0.9913852153
0.2210279058 0.4817638481 0.06429284463 -0.04013013733 -0.1175840692 -0.9922517618
0.2706795958 0.4827846998 0.06278300576 -0.04760587841 -0.07715123803 -0.9958822053
0.2967878271 0.4990817856 0.06063057582 -0.03990240167 -0.09945636809 -0.9942415346
0.2958499284 0.4743514438 0.05939474864 -0.03990240167 -0.09945636809 -0.9942415346
0.2696830874 0.4736079536 0.05983337291 -0.04721868626 -0.07622207741 -0.9959721836
0.2404915081 0.471474953 0.06142888815 -0.04022551304 -0.1282285616 -0.9909285262
0.2170912655 0.4710110946 0.06329606873 -0.04013013733 -0.1175840692 -0.9922517618
0.1854220003 0.4705490213 0.06545505425 -0.03192351983 -0.1644886372 -0.9858622506
0.170140824 0.4699792523 0.06609876242 -0.02798536321 -0.1705953699 -0.9849436731
0.1565886777 0.4700028627 0.06678220992 -0.02798536321 -0.1705953699 -0.9849436731
0.1437879069 0.470372059 0.06724998041 -0.0269412237 -0.1758788617 -0.9840430867
0.1328717458 0.4692899841 0.06752685971 -0.02718422858 -0.1846569133 -0.9824270162
0.1133280167 0.469414806 0.06785972358 -0.02653631656 -0.1821666304 -0.9829095292
0.0944464032 0.4697177824 0.06794150521 -0.02785992021 -0.1746882298 -0.9842295704
0.05027542163 0.4765556069 0.06880334858 -0.02938824837 -0.1750236005 -0.9841255358
0.03565891305 0.4763549152 0.06870097233 -0.01646883927 -0.16094071 -0.9868266642
0.01959687683 0.4768691698 0.06877172294 -0.01358792207 -0.1623684659 -0.9866366351
0.01232170977 0.4761566263 0.06855545057 -0.01358792207 -0.1623684659 -0.9866366351
-0.003156515087 0.4764101007 0.06909969369 0.009315634418 -0.1513115363 -0.9884422279
-0.01950536738 0.4760289826 0.06936642663 0.03336775353 -0.1496694389 -0.9881728857
-0.03669984117 0.4747410055 0.06964612861 0.05093260069 -0.1441591519 -0.9882428897
0.001121927218 0.4799078701 0.06942148601 -0.003443106921 -0.1617365903 -0.9868279589
0.02790719862 0.4867465267 0.06881631659 -0.01001671676 -0.1577777445 -0.9874238445
0.03108919832 0.4956065851 0.06799760224 -0.02315873917 -0.1839202084 -0.9826683213
0.04250369268 0.4887221386 0.06795536768 -0.02654569549 -0.1854240765 -0.9822999735
0.05571690977 0.4871248262 0.06837807133 -0.02311734499 -0.1737615405 -0.9845163866
0.07322551219 0.4847044766 0.06849177848 -0.02397763275 -0.1696833619 -0.985206897
-0.02297417076 0.4849973821 0.07007072089 0.03336775353 -0.1496694389 -0.9881728857
-0.05504009099 0.4820660055 0.06984153641 0.06748512287 -0.1319809743 -0.9889523652
-0.07632653857 0.4800596361 0.06808992454 0.1030572157 -0.09906357863 -0.9897300731
-0.09273309749 0.4860637275 0.06595634436 0.1213482417 -0.09290246004 -0.9882528711
-0.3353110415 0.5054222139 0.07187456864 -0.03733093033 -0.133207839 0.9903848107
-0.3352783869 0.5054648505 0.07189702161 -0.03733093033 -0.133207839 0.9903848107
-0.3227631971 0.5135653586 0.07223612606 -0.01094771968 -0.01165426189 0.9998721546
-0.2947979343 0.5203717988 0.07137229426 -0.1167205405 -0.1390417601 -0.9833838032
-0.2839701034 0.5264599919 0.07106798742 0.1262634206 0.1632401415 0.9784734053
-0.292824882 0.5027704231 0.06908292986 0.06661597983 -0.1234062624 0.9901177736
-0.2903464308 0.4935642682 0.06687497218 0.07862785012 -0.1429054456 0.9866081769
-0.3118870256 0.485482706 0.06511268611 0.02366431736 -0.2686331922 0.9629518202
-0.3395085502 0.4890283187 0.06766697815 -0.02000476778 -0.249436267 0.9681845681
-0.3377857757 0.5133718718 0.07275919071 0.05866566568 0.06634803303 -0.9960704183
-0.3207448922 0.5242089328 0.0730208246 0.009232194326 0.02597936882 0.9996198472
-0.3207473534 0.5242192333 0.07305862596 0.009232194326 0.02597936882 0.9996198472
-0.320764168 0.5241929647 0.07303983054 0.009232194326 0.02597936882 0.9996198472
-0.3041516476 0.538337223 0.07218560845 0.08098600525 0.2784421933 0.9570325031
-0.2993740352 0.5095126446 0.07044216275 0.08375869214 -0.05575516846 0.9949250438
-0.2838940026 0.5067853479 0.0687859429 0.09980284908 -0.06081120728 0.9931472139
-0.2690162101 0.5057917725 0.06793430257 -0.1349612147 -0.001143902483 -0.9908502218
-0.2556131252 0.4992428608 0.06609584862 -0.1202368789 -0.01163855457 -0.9926770054
-0.37686393 0.5886142503 0.04191469118 0.05237076589 -0.3406498963 -0.9387304997
-0.3593401534 0.5834894328 0.04435120484 0.04084541636 -0.3580770418 -0.9327982012
