-0.101341068625 0.436816155417 0.120559356432
-0.0551933345136 0.419965705212 0.119704396507
-0.0828999141874 0.374728677603 0.115183590342
-0.128802745652 0.384272440363 0.105637858954
-0.144881798793 0.430263332139 0.110219688817
-0.122231796017 0.331055450783 0.0353824939666
-0.0712477263633 0.333987966447 0.0407301748265
0.0137553040843 0.37510107846 0.0403879948796
0.0114653280447 0.373822652027 0.0232132829447
0.0448191291493 0.450651353825 0.0191112942135
0.0232526992383 0.447555869533 0.0731750635638
0.00185670326145 0.458135940901 0.0923708388417
0.0146148918762 0.419345251523 0.0756057206522
-0.0126797581605 0.507342125962 0.0825030945152
-0.0111878149151 0.536498038133 0.033137027214
-0.0245726012575 0.525732501979 0.0655923708229
-0.0863354389067 0.534857384646 0.0788835229953
-0.0191199920685 0.53963191808 0.0337479039789
-0.117709729849 0.545437189279 0.0341130596121
-0.16044147305 0.528659618105 0.0311420127498
-0.171910681229 0.515055431536 0.0340155586601
-0.208362986234 0.492884445294 0.0315157221442
-0.220883338565 0.460238572823 0.0282788558746
-0.202565543447 0.438309607504 0.076192035891
-0.228369848517 0.328989944438 -0.0077811901394
-0.19137145553 0.312596436336 -0.00344941693714
-0.176433443017 0.308264961456 -0.00561333014931
-0.232840709983 0.330714189067 -0.0082379505735
-0.219748390202 0.340561559874 -0.00604482441777
-0.211677704661 0.319020228464 -0.00212157552519
-0.240221576823 0.350716779454 -0.00935676609046
-0.153588713832 0.563997988531 -0.00280762416022
-0.192506638928 0.542443029595 -0.00219244232901
-0.221505967758 0.431076640566 0.0359186136612
-0.197225982491 0.501590918866 0.0238750769538
-0.0845341715394 0.514956693421 0.0760367514568
-0.023498108466 0.482591911289 0.088328842851
0.0155131535098 0.432956531501 0.0760020627465
0.0101042083908 0.383558044344 0.069447004299
0.0178871663759 0.41493276842 0.0758215759889
-0.0769638257212 0.526887869483 0.0514874954581
-0.0756417889628 0.515097642828 0.0770556256348
-0.0749902118425 0.497315306792 0.0967690824907
-0.1038 0.4517 0.1099
-0.2322 0.43173 -0.01244002
-0.215908351976 0.48452872346 -0.0127687461973
-0.275939566873 0.421296372203 -0.0266553646676
-0.237487167966 0.442364462333 -0.0175274063136
-0.241251663561 0.386773205593 -0.0200678261668
-0.207618343691 0.3940400983 0.0205163533563
-0.198184051867 0.376559827569 0.0157839221039
-0.201323949417 0.404048788896 0.0426901690102
-0.233418884118 0.50181455432 -0.0234416052293
-0.186016742261 0.540484120483 -0.0198342125402
-0.140408842712 0.551486203439 -0.0146541489868
-0.142691212799 0.53875196696 -0.0114718742766
-0.110177545204 0.552305603509 -0.012406556956
-0.18642644005 0.52544748858 -0.0188653429664
